ply
format ascii 1.0
element vertex 593
property float x
property float y
property float z
property float temperature
end_header
1.94535839557647705 4.84499979019165039 2.45306825637817383 27.4885749816894531
1.94548356533050537 4.83844375610351562 2.75999999046325684 27.554595947265625
1.9567868709564209 4.2499995231628418 2.77440166473388672 27.54779052734375
1.96028733253479004 3.64040660858154297 -4.95433827296665186e-09 25.9701156616210938
1.95037126541137695 4.05007600784301758 -2.38001945263022208e-07 27.1337184906005859
1.93947803974151611 4.5000004768371582 0.0454030334949493408 27.6041107177734375
1.93112695217132568 4.84499931335449219 0.228821426630020142 27.1089591979980469
1.93112576007843018 4.84499931335449219 0.869894564151763916 27.1551895141601562
1.93112742900848389 4.84499979019165039 1.32845973968505859 27.3400306701660156
1.93112814426422119 4.84499979019165039 1.55682003498077393 27.5050792694091797
1.93608438968658447 4.64026784896850586 2.75999975204467773 27.5050792694091797
1.94587862491607666 4.2356572151184082 3.08999991416931152 27.2079906463623047
1.9813913106918335 2.63701963424682617 -5.29786952085942175e-08 28.0182361602783203
1.9794696569442749 2.70281338691711426 3.21136070624561398e-07 28.0992603302001953
1.97198522090911865 2.9590301513671875 -2.38649363382137381e-07 27.8764419555664062
1.96893763542175293 3.06332683563232422 3.86137379848605633e-08 27.6235103607177734
1.96349954605102539 3.24947571754455566 7.46525543604548147e-08 27.2575054168701172
1.96085250377655029 3.34009432792663574 -6.13318675846130645e-08 27.1584758758544922
1.92968153953552246 4.40714502334594727 -1.27800760196805641e-07 27.6041107177734375
1.91689193248748779 4.84499931335449219 0.325101375579833984 27.4555644989013672
1.91689074039459229 4.84499931335449219 0.633576512336730957 27.1832332611083984
1.91689193248748779 4.84499979019165039 1.10043859481811523 27.3070201873779297
1.91689181327819824 4.84499931335449219 1.77393293380737305 27.4803218841552734
1.91689229011535645 4.84499931335449219 1.89178621768951416 27.6342678070068359
1.92806828022003174 4.4624481201171875 2.76000022888183594 27.5317001342773438
1.95936870574951172 3.39091920852661133 3.08999967575073242 27.3317775726318359
1.98717772960662842 2.37472271919250488 -1.19605061854599626e-07 27.425018310546875
1.95131325721740723 3.42290568351745605 -2.43961807200321346e-07 26.4652652740478516
1.94029140472412109 3.74501609802246094 1.809233367566776e-07 26.5147800445556641
1.90265154838562012 4.84499979019165039 0.542724728584289551 27.4555644989013672
1.90265166759490967 4.84499979019165039 1.41392636299133301 27.554595947265625
1.90265285968780518 4.84499931335449219 1.64324831962585449 27.4555644989013672
1.90265130996704102 4.84500026702880859 2.65758371353149414 27.4555644989013672
1.92301225662231445 4.25 2.89030265808105469 27.2575054168701172
1.94676530361175537 3.55577754974365234 3.09000015258789062 28.4458656311035156
1.9754936695098877 2.71618223190307617 3.09000039100646973 28.9260292053222656
1.97043406963348389 2.75378847122192383 3.86078369274400757e-07 28.0992603302001953
1.96545588970184326 2.88070130348205566 -3.26781872672654572e-07 28.0992603302001953
1.92709910869598389 3.85858774185180664 -1.54825684717252443e-07 26.6633243560791016
1.88840925693511963 4.84499979019165039 2.5374755859375 27.4555644989013672
1.91754829883575439 4.10210704803466797 3.09000015258789062 27.3070201873779297
1.92544209957122803 3.90080976486206055 3.08999967575073242 27.4555644989013672
1.95445609092712402 3.1611323356628418 3.08999967575073242 28.1795673370361328
1.96068322658538818 3.00235319137573242 3.08999991416931152 28.7190818786621094
1.96431994438171387 2.80665302276611328 1.70088057416251104e-07 28.1982898712158203
1.95004129409790039 3.12944960594177246 1.44861161288645235e-07 27.4060497283935547
1.90416431427001953 4.1666102409362793 -1.15292905888964015e-07 26.8030338287353516
1.88267099857330322 4.65257501602172852 0.0499998182058334351 27.65362548828125
1.87415742874145508 4.84499979019165039 0.419078201055526733 27.4060497283935547
1.87415981292724609 4.84499979019165039 0.722726881504058838 27.4116249084472656
1.87415993213653564 4.84499979019165039 0.942160665988922119 27.5298252105712891
1.87415838241577148 4.84499931335449219 1.18602895736694336 27.5050792694091797
1.87415766716003418 4.84499979019165039 1.98182666301727295 27.3853931427001953
1.87415742874145508 4.84499979019165039 2.18092179298400879 27.3565349578857422
1.87415754795074463 4.84499979019165039 2.30736494064331055 27.4555644989013672
1.95250117778778076 3.0738677978515625 3.08999991416931152 28.1487751007080078
1.97327840328216553 2.60413408279418945 3.08999943733215332 29.8310546875
1.98307502269744873 2.38264060020446777 3.08999943733215332 30.8734645843505859
1.85990095138549805 4.84499979019165039 0.0619770102202892303 27.2575054168701172
1.85990190505981445 4.84500026702880859 0.811045587062835693 27.2616310119628906
1.85990262031555176 4.84500026702880859 1.02858090400695801 27.1419696807861328
1.85990357398986816 4.84499979019165039 1.27151405811309814 27.2079906463623047
1.85990357398986816 4.84499931335449219 1.49971795082092285 27.5050792694091797
1.85990226268768311 4.84499931335449219 2.07301831245422363 27.2079906463623047
1.85990381240844727 4.84500026702880859 2.40480661392211914 27.4060497283935547
1.88546454906463623 4.32591915130615234 2.75999975204467773 27.7031402587890625
1.88920176029205322 4.25 2.99482464790344238 27.4060497283935547
1.91449439525604248 3.73637151718139648 3.08999991416931152 27.2079906463623047
1.99508237838745117 2.09985828399658203 3.08999943733215332 31.4189338684082031
1.84564054012298584 4.84500026702880859 0.162001118063926697 27.4555644989013672
1.84563827514648438 4.84499979019165039 1.71605026721954346 27.5540866851806641
1.84563851356506348 4.84499979019165039 1.83319699764251709 27.6783828735351562
1.84563815593719482 4.84499979019165039 2.74728727340698242 27.2575054168701172
1.93065047264099121 3.27817010879516602 3.08999991416931152 27.7474842071533203
1.94020366668701172 3.00882434844970703 3.5891312677449605e-07 28.0829982757568359
1.91140961647033691 3.49462413787841797 -7.27176097115034281e-11 26.9769191741943359
1.88259470462799072 3.98074555397033691 -6.08207599839261093e-08 26.7128410339355469
1.86248433589935303 4.32001829147338867 -2.21444310000151745e-07 27.3325366973876953
1.85181665420532227 4.5000004768371582 0.0120648322626948357 28.0002307891845703
1.83136796951293945 4.84499979019165039 0.259670764207839966 27.4555644989013672
1.83136904239654541 4.84499931335449219 0.602558016777038574 27.4060497283935547
1.83136916160583496 4.84499979019165039 1.35700845718383789 27.1584758758544922
1.83136999607086182 4.84499931335449219 1.58595180511474609 27.3400306701660156
1.84186935424804688 4.66782665252685547 2.75999975204467773 27.5050792694091797
1.86663591861724854 4.2499995231628418 2.8091437816619873 27.7275505065917969
1.90313684940338135 3.63417768478393555 3.08999991416931152 28.3963508605957031
1.91333281993865967 3.46217846870422363 3.08999967575073242 27.554595947265625
1.96887862682342529 2.52505373954772949 3.08999967575073242 30.0406208038330078
1.9229501485824585 3.19843339920043945 -6.3855651433186722e-08 27.3070201873779297
1.89790654182434082 3.58797645568847656 -8.25409856020087318e-08 26.4157505035400391
1.81708848476409912 4.84500026702880859 0.495629489421844482 27.3070201873779297
1.81708943843841553 4.84499931335449219 1.11443245410919189 27.2079906463623047
1.81708872318267822 4.84500026702880859 2.60747122764587402 27.65362548828125
1.84012675285339355 4.48668718338012695 2.75999999046325684 27.5672626495361328
1.85651862621307373 4.2317042350769043 3.08999991416931152 27.3565349578857422
1.87166929244995117 3.99606156349182129 3.08999967575073242 27.3070201873779297
1.94154632091522217 2.90917706489562988 3.08999991416931152 29.1390743255615234
1.97697019577026367 2.33224964141845703 -4.67624658995191567e-08 27.3828220367431641
1.97062873840332031 2.42373323440551758 -2.88256757130511687e-07 27.5212688446044922
1.91093015670776367 3.28500795364379883 -7.67087904307572899e-09 27.0594444274902344
1.88297080993652344 3.6883852481842041 -1.14874836754097487e-07 26.5147800445556641
1.80280101299285889 4.84499979019165039 0.354933470487594604 27.4060497283935547
1.80279994010925293 4.84499979019165039 0.883563637733459473 27.2989692687988281
1.80280184745788574 4.84499931335449219 1.92276668548583984 27.557891845703125
1.80280101299285889 4.84499979019165039 2.24506664276123047 27.3070201873779297
1.80279994010925293 4.84499979019165039 2.48895978927612305 27.554595947265625
1.9652782678604126 2.46706438064575195 -4.6752095528290738e-08 27.412200927734375
1.93108093738555908 2.92708587646484375 1.68950080592367158e-07 28.1487751007080078
1.89859962463378906 3.36400747299194336 -7.96070125375081261e-08 26.8613853454589844
1.86641991138458252 3.79688215255737305 -1.42952558235265315e-07 26.6138095855712891
1.78850209712982178 4.84499931335449219 0.69193655252456665 27.3988094329833984
1.78850197792053223 4.84500026702880859 0.970467269420623779 27.3070201873779297
1.78850269317626953 4.84499979019165039 1.20010900497436523 27.4390602111816406
1.78850209712982178 4.84500026702880859 1.44276106357574463 27.0099296569824219
1.78850150108337402 4.84499931335449219 2.0132758617401123 27.554595947265625
1.78850257396697998 4.84499931335449219 2.13581395149230957 27.65362548828125
1.83273565769195557 4.2499995231628418 2.91072678565979004 27.3235244750976562
1.86450850963592529 3.82258868217468262 3.09000015258789062 27.554595947265625
1.93901097774505615 2.82039332389831543 3.08999967575073242 29.0367431640625
1.97799134254455566 2.27729582786560059 -1.07693907125394617e-07 27.3466281890869141
1.95882260799407959 2.51880598068237305 2.67545289034387679e-07 27.7658958435058594
1.94699990749359131 2.66776442527770996 -3.02990201817010529e-07 28.0002307891845703
1.91497039794921875 3.07130980491638184 -1.08034313939242566e-07 27.6678810119628906
1.83410251140594482 4.09018182754516602 -6.65915038666753389e-08 26.745849609375
1.79525983333587646 4.57958126068115234 0.0499999336898326874 27.8516845703125
1.77419197559356689 4.84499931335449219 0.780667245388031006 27.4308071136474609
1.77419304847717285 4.84499931335449219 1.28573012351989746 26.9109001159667969
1.77419185638427734 4.84499979019165039 1.65861392021179199 27.1584758758544922
1.77419400215148926 4.84500026702880859 1.77522075176239014 27.2054710388183594
1.77419328689575195 4.84499931335449219 2.34177207946777344 27.752655029296875
1.89103436470031738 3.37289166450500488 3.08999967575073242 27.9222602844238281
1.95237600803375244 2.56424617767333984 -7.00558402400019986e-08 28.1982383728027344
1.76458275318145752 4.78918361663818359 0.0499999113380908966 28.0002307891845703
1.75987339019775391 4.84499931335449219 1.52889859676361084 27.1089591979980469
1.75987112522125244 4.84500026702880859 2.69682741165161133 27.2079906463623047
1.80195045471191406 4.34647369384765625 2.75999999046325684 27.6041107177734375
1.86907541751861572 3.55117321014404297 3.09000015258789062 28.4458656311035156
1.89793109893798828 3.20929050445556641 3.08999991416931152 28.3317642211914062
1.94405448436737061 2.66282796859741211 3.08999991416931152 29.8959026336669922
1.94536590576171875 2.61084103584289551 4.08905762583344767e-08 28.2973194122314453
1.93585813045501709 2.71714615821838379 -3.12939391733380035e-07 28.0959587097167969
1.92481851577758789 2.84057450294494629 -1.30788620822386292e-07 28.1487751007080078
1.89826226234436035 3.1374809741973877 9.67347588698430627e-08 27.4555644989013672
1.80005621910095215 4.23547267913818359 -2.0444225867777277e-07 26.643157958984375
1.78287661075592041 4.42755889892578125 1.63392300578379945e-07 27.8846950531005859
1.74554002285003662 4.84500026702880859 0.125882163643836975 27.4555644989013672
1.74554061889648438 4.84500026702880859 0.432049185037612915 27.5876045227050781
1.74553942680358887 4.84499979019165039 0.555421173572540283 27.3565349578857422
1.74553966522216797 4.84499931335449219 1.05662238597869873 27.2079906463623047
1.75318849086761475 4.75947427749633789 2.75999975204467773 27.4555644989013672
1.79875898361206055 4.2500004768371582 3.01728606224060059 27.5050792694091797
1.81067991256713867 4.11671113967895508 3.08999967575073242 26.8118705749511719
1.89984798431396484 3.11975598335266113 3.08999967575073242 28.5448951721191406
1.95829641819000244 2.46626949310302734 3.09000015258789062 30.7235546112060547
1.98079252243041992 2.20328497886657715 -3.18610062777224812e-07 27.319671630859375
1.92656731605529785 2.77720451354980469 4.14544331306387903e-07 28.2849407196044922
1.86335837841033936 3.44620513916015625 2.91591277346014977e-07 26.8118705749511719
1.81932723522186279 3.91222596168518066 2.05700402489128464e-07 26.4157505035400391
1.73119354248046875 4.84500026702880859 0.224365159869194031 27.4060497283935547
1.73119497299194336 4.84500026702880859 1.37145555019378662 27.3565349578857422
1.73119401931762695 4.84500026702880859 1.86441922187805176 27.3317642211914062
1.73119461536407471 4.84499931335449219 2.55905699729919434 27.2575054168701172
1.75733411312103271 4.56833219528198242 2.75999975204467773 27.554595947265625
1.83809983730316162 3.71353340148925781 3.08999991416931152 27.4060497283935547
1.92865478992462158 2.75511765480041504 3.08999967575073242 29.7332553863525391
1.84713828563690186 3.53582549095153809 2.31221321200791863e-07 26.4652652740478516
1.71683609485626221 4.84499931335449219 0.320702165365219116 27.4060497283935547
1.7168351411819458 4.84499979019165039 0.853263199329376221 27.2944011688232422
1.71683692932128906 4.84500026702880859 1.14259397983551025 27.1584758758544922
1.71683478355407715 4.84500026702880859 1.95436704158782959 27.1014251708984375
1.7168351411819458 4.84500026702880859 2.0758979320526123 27.0759506225585938
1.71683597564697266 4.84499931335449219 2.20009708404541016 27.1584758758544922
1.71683752536773682 4.84499931335449219 2.42540168762207031 27.8021697998046875
1.77605581283569336 4.25 2.7976233959197998 27.4963474273681641
1.80970001220703125 3.91198372840881348 3.08999967575073242 27.4060497283935547
1.89712512493133545 3.0336000919342041 3.08999943733215332 27.8021697998046875
1.89809930324554443 2.97435593605041504 -5.36693320896119985e-08 28.1735324859619141
1.87127554416656494 3.23084568977355957 -2.35796633774043585e-07 27.3565349578857422
1.82932353019714355 3.63198685646057129 -4.95433827296665186e-09 26.0691452026367188
1.70246422290802002 4.84499979019165039 0.645299673080444336 26.8955650329589844
1.70246195793151855 4.84499931335449219 0.940560877323150635 27.2306709289550781
1.70246195793151855 4.84499979019165039 1.22847330570220947 27.2575054168701172
1.70246255397796631 4.84500026702880859 1.45748639106750488 27.1089591979980469
1.70246374607086182 4.84499979019165039 1.60146248340606689 27.4060497283935547
1.70246195793151855 4.84500026702880859 1.71770501136779785 27.3439960479736328
1.899300217628479 2.96288275718688965 3.08999991416931152 29.0400447845458984
1.85677945613861084 3.30628490447998047 -1.30519861585298713e-08 27.0594444274902344
1.80970478057861328 3.73563599586486816 1.809233367566776e-07 26.3167209625244141
1.72589945793151855 4.5000004768371582 0.0382538251578807831 27.3400306701660156
1.68807530403137207 4.84499979019165039 0.734716176986694336 27.1733303070068359
1.68807542324066162 4.84500026702880859 2.29633879661560059 27.3235244750976562
1.840362548828125 3.45601940155029297 3.08999967575073242 28.2973194122314453
1.85752177238464355 3.29951310157775879 3.08999991416931152 28.3220767974853516
1.76887822151184082 4.0149693489074707 1.61154858346890251e-08 26.7623558044433594
1.69346070289611816 4.67246532440185547 0.0500001907348632812 27.5050792694091797
1.67366981506347656 4.84500026702880859 0.492023885250091553 27.1089591979980469
1.67366909980773926 4.84499979019165039 2.64815092086791992 27.554595947265625
1.74191844463348389 4.25 2.89979434013366699 27.554595947265625
1.74515938758850098 4.22174453735351562 3.08999991416931152 27.4555644989013672
1.96691465377807617 2.28843998908996582 3.09000015258789062 31.4308185577392578
1.89405345916748047 2.88457584381103516 2.48329342866782099e-07 28.4458656311035156
1.72361576557159424 4.30759859085083008 -2.21444310000151745e-07 27.196990966796875
1.65925025939941406 4.84500026702880859 0.0716319531202316284 26.8943958282470703
1.65925002098083496 4.84499931335449219 0.397927045822143555 27.3235244750976562
1.65925109386444092 4.84500026702880859 1.02697205543518066 26.9604148864746094
1.65925025939941406 4.84500026702880859 1.31432688236236572 27.2575054168701172
1.65925097465515137 4.84499931335449219 1.80661487579345703 27.4555644989013672
1.659248948097229 4.84499979019165039 2.75549125671386719 27.7031402587890625
1.71034908294677734 4.41836357116699219 2.75999975204467773 27.65362548828125
1.7572939395904541 4.02640819549560547 3.09000015258789062 27.3565349578857422
1.78481948375701904 3.79659199714660645 3.08999991416931152 27.1584758758544922
1.80532050132751465 3.62543058395385742 3.08999991416931152 27.7031402587890625
1.87088131904602051 3.03422284126281738 1.5189051794095576e-07 28.1145477294921875
1.73132765293121338 4.15202093124389648 -1.15292905888964015e-07 26.7048702239990234
1.64481103420257568 4.84499979019165039 0.171437844634056091 26.6303157806396484
1.64481329917907715 4.84499979019165039 1.52985835075378418 27.1089591979980469
1.64481091499328613 4.84500026702880859 1.896126389503479 27.3506278991699219
1.64481246471405029 4.84499931335449219 2.01683545112609863 27.0594444274902344
1.64481306076049805 4.84499979019165039 2.1399848461151123 27.1584758758544922
1.64481222629547119 4.84500026702880859 2.49532222747802734 27.5050792694091797
1.66891717910766602 4.65192127227783203 2.75999975204467773 27.9011993408203125
1.89129161834716797 2.87074184417724609 3.08999991416931152 29.4856796264648438
1.85725021362304688 3.09868550300598145 2.90359565724429558e-07 27.8021697998046875
1.82020366191864014 3.38382196426391602 -1.18246077818184858e-07 26.7623558044433594
1.76034724712371826 3.8445136547088623 -1.54825684717252443e-07 26.3662357330322266
1.63035750389099121 4.84499931335449219 0.268990248441696167 27.2079906463623047
1.6303558349609375 4.84500026702880859 0.582707583904266357 26.9769191741943359
1.63035702705383301 4.84499979019165039 0.807532668113708496 27.0470657348632812
1.63035762310028076 4.84499979019165039 1.11325836181640625 26.9604148864746094
1.63035500049591064 4.84499931335449219 1.40045344829559326 27.0099296569824219
1.63035690784454346 4.84499931335449219 1.66049456596374512 27.2575054168701172
1.63035690784454346 4.84499931335449219 2.37986612319946289 27.3070201873779297
1.70766210556030273 4.2499995231628418 3.00700259208679199 27.554595947265625
1.92591941356658936 2.57016634941101074 3.08999967575073242 30.3546581268310547
1.84251224994659424 3.16645002365112305 4.15623198080083966e-08 27.5050792694091797
1.80167746543884277 3.46888351440429688 3.13341619317952791e-09 26.5642948150634766
1.61588060855865479 4.84500026702880859 0.673086881637573242 26.9671039581298828
1.61588180065155029 4.84500026702880859 0.895439743995666504 27.0483798980712891
1.6158822774887085 4.84500026702880859 1.19948005676269531 27.0099296569824219
1.61588084697723389 4.84499979019165039 2.23545169830322266 27.4555644989013672
1.6952282190322876 4.25732183456420898 2.75999975204467773 27.5606231689453125
1.84281241893768311 3.16422629356384277 3.09000015258789062 28.1982898712158203
1.97092795372009277 2.21532917022705078 3.08999943733215332 31.4743499755859375
1.94601559638977051 2.38530111312866211 9.98609692715035635e-08 27.3274307250976562
1.88671028614044189 2.8085792064666748 2.86088038592424709e-07 28.4458656311035156
1.78144514560699463 3.55988097190856934 -1.83166207534668501e-07 26.2672042846679688
1.65770876407623291 4.44301271438598633 -5.90674567035875953e-08 26.4652652740478516
1.78617346286773682 3.52612829208374023 3.09000015258789062 28.2478046417236328
1.80692136287689209 3.3780524730682373 3.08999967575073242 28.0992603302001953
1.9072568416595459 2.63867402076721191 3.5025595934712328e-07 28.0745029449462891
1.89283907413482666 2.73796653747558594 9.23540568464886746e-08 28.5448951721191406
1.75929141044616699 3.65764594078063965 9.76355067905387841e-08 26.2176895141601562
1.63283514976501465 4.52848386764526367 0.0499999821186065674 26.5642948150634766
1.58687186241149902 4.84499931335449219 0.457743912935256958 26.9604148864746094
1.58687198162078857 4.84499979019165039 1.74920272827148438 27.2067527770996094
1.58687281608581543 4.84499979019165039 2.58382225036621094 27.554595947265625
1.69148600101470947 4.12457656860351562 3.09000015258789062 26.9109001159667969
1.7210996150970459 3.920654296875 3.08999991416931152 26.8613853454589844
1.75266134738922119 3.70329999923706055 3.08999991416931152 27.752655029296875
1.84200835227966309 3.08801007270812988 3.09000039100646973 28.5448951721191406
1.89672768115997314 2.68701624870300293 7.01904312450096768e-08 28.4953804016113281
1.86034214496612549 2.92906641960144043 1.17457986448243901e-07 28.4706230163574219
1.8141862154006958 3.23612093925476074 7.46525543604548147e-08 27.3070201873779297
1.70504331588745117 3.96217632293701172 -6.08207599839261093e-08 26.133392333984375
1.58943688869476318 4.73123693466186523 0.0499998182058334351 26.5642948150634766
1.57233572006225586 4.84500026702880859 0.346603095531463623 26.7128410339355469
1.57233822345733643 4.84499931335449219 0.982252299785614014 27.3070201873779297
1.57233667373657227 4.84500026702880859 1.28561496734619141 27.0099296569824219
1.57233774662017822 4.84500026702880859 1.47282528877258301 27.4060497283935547
1.57233726978302002 4.84499979019165039 1.58865809440612793 27.3895454406738281
1.57233798503875732 4.84499931335449219 1.83839559555053711 27.4060497283935547
1.57233679294586182 4.84499979019165039 1.95846498012542725 27.3950042724609375
1.57233631610870361 4.84499979019165039 2.08075714111328125 27.2079906463623047
1.57233762741088867 4.84500026702880859 2.68973326683044434 27.4555644989013672
1.66177749633789062 4.25 2.85660052299499512 27.6012840270996094
1.8137131929397583 3.23926377296447754 3.09000015258789062 27.9363689422607422
1.87931835651397705 2.80282187461853027 3.08999943733215332 29.9808292388916016
1.89501678943634033 2.69839191436767578 3.08999967575073242 30.3521919250488281
1.93142926692962646 2.44114160537719727 6.80052067991709919e-08 27.4555644989013672
1.92351925373077393 2.49203729629516602 -1.05593024102290656e-07 28.0002307891845703
1.90944063663482666 2.58260989189147949 -2.42562521179934265e-07 27.7278976440429688
1.79613292217254639 3.31157135963439941 -2.05131883035392093e-07 26.4652652740478516
1.65126729011535645 4.24355697631835938 -4.94562399921960605e-08 26.4688377380371094
1.55777978897094727 4.84499979019165039 0.0996426120400428772 26.6633243560791016
1.55778050422668457 4.84500026702880859 0.746279358863830566 26.8613853454589844
1.55777919292449951 4.84499931335449219 2.3184659481048584 27.5050792694091797
1.55777871608734131 4.84499931335449219 2.44997334480285645 27.7031402587890625
1.56926453113555908 4.77112293243408203 2.76000022888183594 27.5711002349853516
1.60376489162445068 4.54915952682495117 2.75999975204467773 27.6978225708007812
1.91388511657714844 2.5363309383392334 -4.93619438657333376e-08 27.9468574523925781
1.71734058856964111 3.76043486595153809 2.91405257257792982e-07 26.1186599731445312
1.66385698318481445 4.09353923797607422 2.87601942261517252e-08 26.5028133392333984
1.54319822788238525 4.84500026702880859 0.19893975555896759 26.7128410339355469
1.54319846630096436 4.84499979019165039 0.548882722854614258 26.6138095855712891
1.54320025444030762 4.84499979019165039 0.834995687007904053 26.5665111541748047
1.54319965839385986 4.84499979019165039 1.06899094581604004 26.9604148864746094
1.54320085048675537 4.84500026702880859 1.37204992771148682 27.3565349578857422
1.54319894313812256 4.84499931335449219 2.17557263374328613 27.4060497283935547
1.61821377277374268 4.37780523300170898 2.75999999046325684 27.4711132049560547
1.63873565196990967 4.25 3.08693075180053711 27.2079906463623047
1.83722245693206787 3.01379561424255371 3.09000015258789062 28.2973194122314453
1.93331754207611084 2.41530108451843262 3.09000039100646973 31.2187042236328125
1.9451909065246582 2.34135937690734863 3.09000039100646973 30.9934139251708984
1.96005642414093018 2.24106621742248535 1.52071834236267023e-07 27.3050289154052734
1.83650004863739014 2.98675346374511719 8.96306033837390714e-08 28.2560577392578125
1.52859747409820557 4.84499979019165039 0.639972567558288574 26.7388668060302734
1.52859759330749512 4.84499931335449219 1.15569078922271729 26.9109001159667969
1.52859723567962646 4.84500026702880859 1.67701864242553711 27.3070201873779297
1.62718427181243896 4.2499995231628418 2.9628753662109375 27.4060497283935547
1.70124542713165283 3.80303406715393066 3.09000015258789062 27.8516845703125
1.84737014770507812 2.92114543914794922 3.08999967575073242 29.3247566223144531
1.896232008934021 2.62625455856323242 3.08999967575073242 30.5502529144287109
1.8208625316619873 3.04859042167663574 3.86137379848605633e-08 27.9200420379638672
1.7602466344833374 3.40340638160705566 -2.43961807200321346e-07 26.5147800445556641
1.65631973743438721 4.01174354553222656 3.09000015258789062 27.0594444274902344
1.72432637214660645 3.61366844177246094 3.08999991416931152 27.9011993408203125
1.75334155559539795 3.44382786750793457 3.08999967575073242 28.3599281311035156
1.9130629301071167 2.50889253616333008 3.08999991416931152 29.9640045166015625
1.85050356388092041 2.84947490692138672 -1.15523334898171015e-07 29.0895595550537109
1.80404841899871826 3.11344456672668457 1.44861161288645235e-07 27.6866359710693359
1.73785567283630371 3.48956537246704102 -1.52175431367140845e-07 26.3167209625244141
1.58260488510131836 4.37172460556030273 -1.27800760196805641e-07 26.6344413757324219
1.49931442737579346 4.84499931335449219 0.406414270401000977 26.6633243560791016
1.49931645393371582 4.84499979019165039 0.9223366379737854 27.0907917022705078
1.49931442737579346 4.84499931335449219 1.53159284591674805 27.3070201873779297
1.49931550025939941 4.84500026702880859 1.76617991924285889 27.2357349395751953
1.49931466579437256 4.84499979019165039 1.90062463283538818 27.3411750793457031
1.49931550025939941 4.84499979019165039 2.02224493026733398 27.4885749816894531
1.49931716918945312 4.84499931335449219 2.53839349746704102 27.4308071136474609
1.60402834415435791 4.2500004768371582 2.78051090240478516 27.5458984375
1.98589491844177246 2.0778656005859375 -1.74777753159105487e-07 27.3027820587158203
1.94432616233825684 2.3073432445526123 -1.10926627883145557e-08 27.2910423278808594
1.71345305442810059 3.58185172080993652 2.33418937511942204e-08 26.2176895141601562
1.66129529476165771 3.86977744102478027 -1.48750785911033745e-07 26.3167209625244141
1.54713320732116699 4.5 0.0253585241734981537 26.6501216888427734
1.48463773727416992 4.84499979019165039 0.27724003791809082 26.6798305511474609
1.48463809490203857 4.84499979019165039 1.24216532707214355 26.9604148864746094
1.48463761806488037 4.84500026702880859 1.44468522071838379 27.0099296569824219
1.48463833332061768 4.84499931335449219 2.258148193359375 27.2822628021240234
1.48463642597198486 4.84500026702880859 2.38829374313354492 27.3730392456054688
1.48463690280914307 4.84499931335449219 2.64354825019836426 27.5050792694091797
1.76204943656921387 3.31357169151306152 3.08999991416931152 27.8719215393066406
1.78003740310668945 3.18059015274047852 -6.3855651433186722e-08 27.3317775726318359
1.50729107856750488 4.64447879791259766 0.0500001907348632812 26.6633243560791016
1.46993052959442139 4.84499979019165039 0.713366389274597168 26.7364063262939453
1.46993076801300049 4.84499979019165039 1.00963687896728516 26.7623558044433594
1.4699326753616333 4.84499979019165039 2.11652684211730957 27.3070201873779297
1.46993064880371094 4.84499979019165039 2.75187563896179199 27.7031402587890625
1.51049411296844482 4.62729692459106445 2.75999975204467773 27.6123619079589844
1.60275280475616455 4.13212203979492188 3.08999991416931152 27.7031402587890625
1.97403550148010254 2.13558745384216309 1.32308301203920564e-07 27.3021049499511719
1.85317397117614746 2.76673531532287598 4.14544331306387903e-07 28.9905300140380859
1.6783757209777832 3.6795499324798584 -1.55925743428042551e-08 25.9701156616210938
1.61854636669158936 3.99198722839355469 1.61154858346890251e-08 26.3081817626953125
1.58270537853240967 4.17915153503417969 2.04101326062300359e-07 26.2431488037109375
1.45519840717315674 4.84499979019165039 0.0581876300275325775 26.4157505035400391
1.45519924163818359 4.84499979019165039 0.498318135738372803 26.7293453216552734
1.45519781112670898 4.84500026702880859 0.802763581275939941 26.79888916015625
1.4551997184753418 4.84500026702880859 1.09689915180206299 26.6963348388671875
1.4552001953125 4.84500026702880859 1.32896840572357178 26.9356575012207031
1.45519924163818359 4.84499979019165039 1.61992692947387695 26.9604148864746094
1.56913697719573975 4.25 2.88415002822875977 27.6041107177734375
1.63862252235412598 3.88714170455932617 3.08999967575073242 26.9604148864746094
1.67303431034088135 3.70744872093200684 3.08999991416931152 28.1487751007080078
1.77420055866241455 3.17914557456970215 3.09000015258789062 28.3177528381347656
1.75389087200164795 3.25129890441894531 6.4383449682736682e-08 27.4555644989013672
1.44043910503387451 4.84499979019165039 0.158676519989967346 26.5246829986572266
1.4404376745223999 4.84499979019165039 0.590441107749938965 26.5395374298095703
1.51911520957946777 4.44498109817504883 2.75999999046325684 27.7326374053955078
1.55746567249298096 4.25 3.0432279109954834 27.5050792694091797
1.69958341121673584 3.52742505073547363 3.09000015258789062 28.1487751007080078
1.83279275894165039 2.85013961791992188 3.09000015258789062 29.5847091674804688
1.85362350940704346 2.74422121047973633 3.08999967575073242 30.4264659881591797
1.97028946876525879 2.15105891227722168 3.08999991416931152 31.1124763488769531
1.81797134876251221 2.90166473388671875 3.92113690850237617e-07 28.8172283172607422
1.73203039169311523 3.32736897468566895 -3.01051139572905413e-09 26.8613853454589844
1.42564725875854492 4.84500026702880859 1.70901083946228027 27.0844135284423828
1.42564749717712402 4.84499979019165039 1.82814872264862061 27.1899394989013672
1.42564773559570312 4.84500026702880859 1.96428608894348145 27.3877696990966797
1.42564868927001953 4.84499931335449219 2.47611379623413086 27.554595947265625
1.77752888202667236 3.10199403762817383 3.08999967575073242 27.7278976440429688
1.92823135852813721 2.34655570983886719 2.30914110943558626e-07 27.2549533843994141
1.85399186611175537 2.70504951477050781 -3.12939391733380035e-07 28.8915004730224609
1.41082859039306641 4.84499931335449219 0.337191581726074219 26.4735183715820312
1.41082954406738281 4.84499931335449219 0.89057081937789917 26.7673358917236328
1.41082930564880371 4.84500026702880859 1.18372440338134766 26.92327880859375
1.4108281135559082 4.84499979019165039 1.50370883941650391 26.7697830200195312
1.41082894802093506 4.84500026702880859 2.19873452186584473 27.1337184906005859
1.41082799434661865 4.84499931335449219 2.32773423194885254 27.2409992218017578
1.8709794282913208 2.60769939422607422 -3.55340830537898e-07 27.9259567260742188
1.7013314962387085 3.40675663948059082 3.55362885784415994e-08 26.6138095855712891
1.62182116508483887 3.78125762939453125 -1.95744632947025821e-07 26.3167209625244141
1.51161491870880127 4.30034065246582031 -4.61375115889950393e-08 26.5081939697265625
1.39597761631011963 4.84499979019165039 1.40183639526367188 26.9109001159667969
1.39597880840301514 4.84499931335449219 2.05814862251281738 27.2451267242431641
1.39597904682159424 4.84499931335449219 2.58141350746154785 27.6041107177734375
1.51636505126953125 4.27796220779418945 2.75999975204467773 27.7346248626708984
1.57184457778930664 4.01664590835571289 3.08999967575073242 27.7278976440429688
1.70801436901092529 3.3752744197845459 3.08999991416931152 27.9280757904052734
1.85760700702667236 2.65455412864685059 -3.02990201817010529e-07 28.5696525573730469
1.79175150394439697 2.95728015899658203 -5.36693320896119985e-08 28.6191673278808594
1.76922106742858887 3.06085395812988281 1.09955074378831341e-07 28.1561298370361328
1.67522764205932617 3.49292778968811035 -2.23279471356363501e-07 26.2672042846679688
1.46265816688537598 4.47007656097412109 -2.01583773673519318e-07 26.469390869140625
1.381095290184021 4.84499931335449219 0.237204074859619141 26.2672042846679688
1.3810964822769165 4.84499979019165039 0.431159734725952148 26.7953643798828125
1.38109672069549561 4.84499979019165039 0.664193272590637207 26.8141002655029297
1.38109445571899414 4.84499979019165039 0.978433310985565186 26.6798305511474609
1.38109493255615234 4.84499979019165039 1.27088308334350586 26.7375984191894531
1.38109672069549561 4.84499979019165039 2.68852376937866211 27.6041107177734375
1.40387046337127686 4.74030923843383789 2.76000022888183594 27.9259567260742188
1.61150443553924561 3.78585076332092285 3.09000015258789062 27.7031402587890625
1.64850544929504395 3.61576604843139648 3.09000015258789062 28.0992603302001953
1.78925895690917969 2.96873831748962402 3.09000015258789062 28.0992603302001953
1.74914944171905518 3.12598419189453125 2.25991911406708823e-07 27.7774124145507812
1.64682638645172119 3.58527326583862305 -1.06273652988875256e-07 26.2672042846679688
1.577797532081604 3.89512538909912109 1.65243861260933045e-07 26.4157505035400391
1.53892254829406738 4.06961536407470703 2.87601942261517252e-08 26.4154281616210938
1.43004012107849121 4.55835676193237305 0.049999874085187912 26.3414783477783203
1.3661806583404541 4.84499931335449219 0.524613082408905029 26.6138095855712891
1.36618053913116455 4.84499931335449219 0.754533112049102783 26.5476760864257812
1.3661808967590332 4.84500026702880859 1.06632053852081299 26.7375984191894531
1.36618161201477051 4.84500026702880859 1.59244883060455322 27.0594444274902344
1.49873661994934082 4.25 2.96313762664794922 27.4555644989013672
1.51370716094970703 4.18279933929443359 3.08999991416931152 27.9011993408203125
1.72165095806121826 3.24941921234130859 3.08999991416931152 28.1517276763916016
1.8723825216293335 2.55963516235351562 4.03333956455753651e-07 28.0822467803955078
1.81645023822784424 2.80490756034851074 -1.74667363239677798e-07 29.1390743255615234
1.36922430992126465 4.76610231399536133 0.050000164657831192 26.4405078887939453
1.3512338399887085 4.84500026702880859 1.77091038227081299 26.9910678863525391
1.35123419761657715 4.84499979019165039 1.89151370525360107 27.1268310546875
1.35123276710510254 4.84499931335449219 2.41504406929016113 27.9011993408203125
1.41968989372253418 4.54480600357055664 2.76000022888183594 27.871490478515625
1.4869157075881958 4.2499995231628418 2.84517431259155273 28.0497055053710938
1.9067540168762207 2.39967489242553711 -5.74558978172490242e-09 27.1711044311523438
1.89191758632659912 2.46327042579650879 -3.9940488250067574e-07 27.4555644989013672
1.72162556648254395 3.19318318367004395 -2.34996790027253155e-07 27.4555644989013672
1.3362497091293335 4.84499979019165039 0.116183571517467499 26.448760986328125
1.33625113964080811 4.84499979019165039 1.68193578720092773 26.8118705749511719
1.33625125885009766 4.84499979019165039 2.14006233215332031 27.5215854644775391
1.33625268936157227 4.84499979019165039 2.26812243461608887 27.752655029296875
1.66035974025726318 3.45578432083129883 3.09000015258789062 28.4458656311035156
1.84422206878662109 2.66770243644714355 3.08999943733215332 30.2490367889404297
1.86712121963500977 2.56955218315124512 3.08999967575073242 30.4264659881591797
1.87922227382659912 2.50622844696044922 2.67545289034387679e-07 27.6288681030273438
1.59900104999542236 3.68075942993164062 6.78467131365323439e-08 26.4652652740478516
1.32500016689300537 4.82921981811523438 0.845517516136169434 26.8615589141845703
1.32500016689300537 4.82922267913818359 1.15444767475128174 26.8118705749511719
1.32500004768371582 4.82922172546386719 1.34363138675689697 26.8910942077636719
1.32500016689300537 4.82921266555786133 1.46013474464416504 26.9769191741943359
1.32500004768371582 4.82922124862670898 1.98103737831115723 27.59027099609375
1.32500004768371582 4.82922172546386719 2.51264166831970215 28.1735324859619141
1.5450589656829834 3.90685772895812988 3.08999991416931152 27.9507160186767578
1.75336301326751709 3.03376173973083496 3.08999967575073242 28.1487751007080078
1.78595185279846191 2.8971705436706543 3.08999967575073242 29.3371353149414062
1.89136171340942383 2.45534944534301758 3.09000015258789062 31.3581676483154297
1.79117584228515625 2.85628294944763184 -3.26781872672654572e-07 29.0895595550537109
1.69174635410308838 3.2639923095703125 -3.48050349430195638e-07 26.8613853454589844
1.46823799610137939 4.18049383163452148 -2.0444225867777277e-07 27.1203269958496094
1.32500016689300537 4.76783514022827148 0.324162960052490234 26.844879150390625
1.32500004768371582 4.76783466339111328 0.617893218994140625 27.0470657348632812
1.42292451858520508 4.36629772186279297 2.75999975204467773 28.8575973510742188
1.58810508251190186 3.68897366523742676 3.08999991416931152 27.8846950531005859
1.80765032768249512 2.78872513771057129 3.08999943733215332 30.5254955291748047
1.75057220458984375 3.00100874900817871 -6.1812876595013222e-08 28.6563320159912109
1.66596686840057373 3.34054875373840332 -1.33897060550225433e-07 26.4652652740478516
1.41774320602416992 4.33672285079956055 -1.27800760196805641e-07 27.0990791320800781
1.32099306583404541 4.72499942779541016 0.431284964084625244 27.0429401397705078
1.32099306583404541 4.72500038146972656 0.716091454029083252 26.8850250244140625
1.32099390029907227 4.72499990463256836 0.947118997573852539 27.1682491302490234
1.32099437713623047 4.72499942779541016 1.24382507801055908 26.8696384429931641
1.32099413871765137 4.72499990463256836 2.57100057601928711 28.4458656311035156
1.32099330425262451 4.72499990463256836 2.69137930870056152 29.3701457977294922
1.43935251235961914 4.25 3.0627596378326416 28.8915004730224609
1.48617160320281982 4.06210708618164062 3.08999967575073242 28.9905300140380859
1.70972144603729248 3.16495037078857422 3.09000015258789062 28.0002307891845703
1.95619094371795654 2.17214083671569824 -4.67509053692083398e-09 27.296112060546875
1.81179940700531006 2.73951172828674316 1.53569459371283301e-07 29.0400447845458984
1.63810503482818604 3.42202019691467285 1.08467638426645863e-07 26.4240016937255859
1.54611003398895264 3.78349924087524414 -1.14940403861396589e-08 26.6138095855712891
1.49978506565093994 3.96552872657775879 1.61154858346890251e-08 27.0767230987548828
1.36376643180847168 4.5 0.00579158682376146317 27.0693473815917969
1.30650544166564941 4.72499942779541016 0.241608262062072754 27.022308349609375
1.30650424957275391 4.72499990463256836 0.521795809268951416 26.8861427307128906
1.30650472640991211 4.72499990463256836 1.03206706047058105 26.8118705749511719
1.3065037727355957 4.72499990463256836 1.53958642482757568 27.2327480316162109
1.3065032958984375 4.72499990463256836 1.81167423725128174 27.2581348419189453
1.3065032958984375 4.72499990463256836 2.31050634384155273 28.1157646179199219
1.60824763774871826 3.53933525085449219 3.09000015258789062 28.0992603302001953
1.66730999946594238 3.30725932121276855 3.08999967575073242 27.6661243438720703
1.76373755931854248 2.90931200981140137 1.17457986448243901e-07 29.2455348968505859
1.60790801048278809 3.50906467437744141 -6.45180335823170026e-08 26.0691452026367188
1.32353591918945312 4.60354185104370117 0.0500001907348632812 26.7623558044433594
1.29197824001312256 4.72500038146972656 1.72551751136779785 27.2093677520751953
1.29197776317596436 4.72499942779541016 2.03392314910888672 27.2079906463623047
1.29197835922241211 4.72500038146972656 2.1709287166595459 27.5298366546630859
1.31166017055511475 4.64925384521484375 2.75999999046325684 28.95751953125
1.41539478302001953 4.25 2.79006314277648926 28.9963741302490234
1.41539442539215088 4.25 2.92477965354919434 29.1803379058837891
1.92870283126831055 2.2688753604888916 -1.07693907125394617e-07 27.2722339630126953
1.71602737903594971 3.07090902328491211 2.90359565724429558e-07 28.3538761138916016
1.27741420269012451 4.72499942779541016 0.0914195850491523743 26.9356575012207031
1.27741479873657227 4.72499990463256836 0.801545679569244385 26.8573360443115234
1.27741384506225586 4.72499990463256836 1.3987119197845459 27.0254344940185547
1.27741420269012451 4.72500038146972656 1.62564289569854736 27.0193443298339844
1.27741420269012451 4.72499990463256836 1.90088653564453125 27.2277011871337891
1.27741479873657227 4.72499990463256836 2.40970468521118164 28.3468341827392578
1.52209436893463135 3.80226922035217285 3.08999967575073242 27.8269271850585938
1.81638848781585693 2.67871665954589844 3.21136070624561398e-07 29.0400447845458984
1.69262850284576416 3.13619017601013184 4.15623198080083966e-08 27.65362548828125
1.56706762313842773 3.60032415390014648 -1.39270781573941349e-07 26.1434173583984375
1.23034882545471191 4.84500026702880859 1.10815799236297607 26.6138095855712891
1.23034989833831787 4.84500026702880859 1.31473648548126221 26.9480361938476562
1.42968237400054932 4.0671086311340332 -4.61530085260619671e-08 27.1668243408203125
1.21506285667419434 4.84500026702880859 0.321970313787460327 26.8910369873046875
1.21506321430206299 4.84499979019165039 0.562109947204589844 26.8302860260009766
1.21506118774414062 4.84499979019165039 0.869038760662078857 26.84954833984375
1.21506178379058838 4.84499979019165039 2.56522035598754883 29.3371353149414062
1.32180583477020264 4.45810222625732422 2.75999999046325684 28.690185546875
1.40522098541259766 4.15576696395874023 3.08999991416931152 28.8419857025146484
1.46263980865478516 3.94765496253967285 3.08999967575073242 28.9905300140380859
1.6183159351348877 3.38341188430786133 3.08999991416931152 28.3203983306884766
1.70099592208862305 3.08373546600341797 3.08999967575073242 28.2973194122314453
1.82743465900421143 2.61348271369934082 -5.29786952085942175e-08 28.5283908843994141
1.66152215003967285 3.2033085823059082 7.46525543604548147e-08 27.1584758758544922
1.37800288200378418 4.21124172210693359 1.7877840718938387e-07 27.2758560180664062
1.19973182678222656 4.84499931335449219 0.418068557977676392 26.7807998657226562
1.19973325729370117 4.84499979019165039 0.654613137245178223 26.6940326690673828
1.19973242282867432 4.84500026702880859 0.958620667457580566 26.7007293701171875
1.19973182678222656 4.84499931335449219 1.1965179443359375 26.7858180999755859
1.19973111152648926 4.84500026702880859 1.49237203598022461 26.8301715850830078
1.19973397254943848 4.84499979019165039 2.29581904411315918 27.8181400299072266
1.19973266124725342 4.84499979019165039 2.69134855270385742 27.6718864440917969
1.54773712158203125 3.60782337188720703 3.08999967575073242 28.0992603302001953
1.65703761577606201 3.2192535400390625 3.09000015258789062 28.1310882568359375
1.79746997356414795 2.72000408172607422 3.09000015258789062 30.7400608062744141
1.8962864875793457 2.36870670318603516 3.08999943733215332 31.3494815826416016
1.7699592113494873 2.80239582061767578 -3.53841414835187607e-07 29.2876205444335938
1.63420426845550537 3.27592015266418457 -2.05131883035392093e-07 26.8613853454589844
1.51375210285186768 3.6960599422454834 -2.33289654261170654e-07 26.7871131896972656
1.47066164016723633 3.84636187553405762 2.05700402489128464e-07 27.0470657348632812
1.3201524019241333 4.37134695053100586 -5.90674567035875953e-08 26.9769191741943359
1.18435966968536377 4.84500026702880859 0.117895014584064484 26.8366279602050781
1.18435883522033691 4.84499931335449219 1.80803632736206055 27.2109947204589844
1.18436169624328613 4.84499979019165039 2.00860095024108887 27.4046878814697266
1.18435990810394287 4.84499979019165039 2.13505053520202637 27.5962734222412109
1.35494160652160645 4.25 3.02458572387695312 28.1735324859619141
1.72029781341552734 2.9756169319152832 3.09000015258789062 28.2478046417236328
1.76122057437896729 2.83287596702575684 3.09000015258789062 30.0798606872558594
1.85504627227783203 2.50560593605041504 3.08999967575073242 30.4842205047607422
1.72243857383728027 2.95019054412841797 -1.81330506165977567e-07 29.2422313690185547
1.60477995872497559 3.35297608375549316 1.79631172159133712e-07 26.4900226593017578
1.269722580909729 4.4999995231628418 0.0257939752191305161 26.8770961761474609
1.16894292831420898 4.84499979019165039 0.218092992901802063 26.7623558044433594
1.16894340515136719 4.84499979019165039 1.582419753074646 27.2268276214599609
1.16894435882568359 4.84499931335449219 1.70257341861724854 27.2949161529541016
1.16894280910491943 4.84499979019165039 2.39873027801513672 28.1647796630859375
1.19409000873565674 4.7589111328125 2.75999975204467773 27.9285850524902344
1.33229374885559082 4.2857966423034668 2.76000022888183594 27.8701419830322266
1.34275031089782715 4.2500004768371582 2.86945819854736328 28.0524749755859375
1.50269532203674316 3.70245456695556641 3.09000015258789062 28.1487751007080078
1.57225501537322998 3.4643244743347168 3.09000039100646973 28.1157646179199219
1.82200837135314941 2.6093287467956543 3.08999967575073242 30.6987972259521484
1.57300198078155518 3.43506884574890137 -7.27176097115034281e-11 26.0196304321289062
1.21233081817626953 4.64722204208374023 0.0499998182058334351 27.0954837799072266
1.153481125831604 4.84500026702880859 0.744517207145690918 26.72772216796875
1.15348374843597412 4.84499979019165039 1.04708695411682129 26.7567825317382812
1.15348243713378906 4.84499979019165039 1.37422096729278564 26.9166221618652344
1.15348351001739502 4.84499931335449219 1.90169644355773926 27.3561115264892578
1.91195225715637207 2.29591274261474609 3.08999991416931152 31.8796939849853516
1.9369208812713623 2.20818591117858887 -2.34618781291828782e-07 27.2928237915039062
1.84026575088500977 2.52718305587768555 -1.57033213099566638e-08 28.0473613739013672
1.74165987968444824 2.85261821746826172 2.48329342866782099e-07 29.5847091674804688
1.69466042518615723 3.00772976875305176 -2.91969485033405363e-07 28.6588764190673828
1.53857171535491943 3.52288556098937988 -8.25409856020087318e-08 26.0072517395019531
1.13797628879547119 4.84499979019165039 0.493254512548446655 26.7001228332519531
1.13797616958618164 4.84499979019165039 1.27027130126953125 26.6599674224853516
1.13797473907470703 4.84500026702880859 2.50461459159851074 28.8175125122070312
1.3837510347366333 4.03384923934936523 3.08999967575073242 27.65362548828125
1.90387082099914551 2.31164026260375977 -4.24423205913626589e-07 27.2530994415283203
1.8684074878692627 2.4266045093536377 6.80052067991709919e-08 27.1419696807861328
1.4021751880645752 3.93807268142700195 1.61154858346890251e-08 27.0969219207763672
1.12242114543914795 4.84499931335449219 0.346295922994613647 26.5949440002441406
1.12241923809051514 4.84499979019165039 0.5871695876121521 26.8430938720703125
1.12241923809051514 4.84500026702880859 0.834791183471679688 26.7561969757080078
1.12241947650909424 4.84499979019165039 1.1360853910446167 26.7932929992675781
1.1224210262298584 4.84499979019165039 2.22097897529602051 27.8588485717773438
1.1224219799041748 4.84500026702880859 2.62956786155700684 28.7986907958984375
1.21225190162658691 4.55377388000488281 2.75999975204467773 27.6164760589599609
1.43364036083221436 3.83606553077697754 3.08999967575073242 28.8749942779541016
1.59823882579803467 3.302459716796875 3.08999943733215332 28.0662498474121094
1.72141635417938232 2.90313005447387695 3.08999991416931152 29.1390743255615234
1.88769233226776123 2.3577265739440918 -1.19605061854599626e-07 27.2162017822265625
